# .PCD v0.7 - Point Cloud Data file format
VERSION 0.7
FIELDS x y z intensity
SIZE 4 4 4 4
TYPE F F F F
COUNT 1 1 1 1
WIDTH 1243
HEIGHT 1
VIEWPOINT 0 0 0 1 0 0 0
POINTS 1243
DATA ascii
-109.21468 46.832035 16.700771 -0.1
-7.6494493 4.2914286 0.38639951 8.5019999
-29.721867 13.70886 7.6264791 32.793999
-7.6645193 4.2965937 0.58407855 8.4799995
-30.759182 14.147105 8.6275673 34.082001
-3.3588858 2.4647818 -0.040989637 4.244
-7.7049379 4.3365555 0.77662051 8.5
-3.5693698 2.5557814 -0.054447651 4.4499998
0.1 0.1 0.1 -0.1
-3.7623622 2.6390948 -0.047888279 4.632
0.1 0.1 0.1 -0.1
-3.9914644 2.73807 -0.051292896 4.8559999
-109.68747 47.375118 -11.147032 -0.1
-4.2363133 2.843817 -0.050163269 5.0960002
-16.223068 8.0143414 0.97964692 17.709999
-4.5013556 2.9582746 -0.04735136 5.3579998
-110.0442 47.529198 -5.5900116 -0.1
-4.7956262 3.0853553 -0.044380665 5.652
-17.944197 8.7525253 1.7734547 19.549999
-5.1523905 3.2394953 -0.051694632 6.0159998
-110.1638 47.580849 0 -0.1
-5.5479021 3.4103584 -0.057090044 6.4219999
-28.945938 13.496073 3.0373235 31.542
-6.0020142 3.60654 -0.063663244 6.8920002
-110.0442 47.529198 5.5900116 -0.1
-6.5315256 3.8352926 -0.071042538 7.4439998
-28.187616 13.159305 4.4474754 30.788
-7.1241627 4.0912695 -0.072200775 8.0640001
-26.708118 12.516636 5.0045471 29.23
-7.5121169 4.2582731 0.013313532 8.4499998
-109.41817 47.258804 13.938084 -0.1
0.1 0.1 0.1 -0.1
-109.09169 47.117798 16.700771 -0.1
0.1 0.1 0.1 -0.1
-29.717348 13.799154 7.6323819 32.826
0.1 0.1 0.1 -0.1
-31.418665 14.526492 8.7755814 34.852001
-3.3595738 2.4762182 -0.043955088 4.25
0.1 0.1 0.1 -0.1
-3.5570486 2.5622025 -0.049541473 4.4400001
0.1 0.1 0.1 -0.1
-3.7626867 2.65171 -0.050601721 4.638
-16.396624 8.1492634 0.12646854 17.996
-3.9833603 2.7477469 -0.049448252 4.8520002
-109.55475 47.68124 -11.147032 -0.1
-4.2162514 2.8490634 -0.042491674 5.0780001
-16.223572 8.0683746 0.97855186 17.732
-4.5009532 2.973022 -0.049674034 5.3639998
-109.91105 47.836311 -5.5900116 -0.1
-4.8050871 3.1054006 -0.051122189 5.6700001
-110.00085 47.875397 -2.7852952 -0.1
-5.151298 3.2561004 -0.053746462 6.0219998
-110.0305 47.888298 0 -0.1
-5.5498271 3.4295969 -0.060347557 6.4320002
-28.954906 13.596002 3.0392795 31.59
-5.975625 3.6148944 -0.056647539 6.8699999
-109.91105 47.836311 5.5900116 -0.1
-6.5271373 3.8550317 -0.072089672 7.448
-109.76247 47.771645 8.3707771 -0.1
-7.099669 4.1041851 -0.067222595 8.0459995
-25.701115 12.167684 4.8988914 28.162001
-7.5101399 4.282321 0.011475325 8.4580002
-27.889523 13.113885 5.8570547 30.638
-8.7821512 4.8367028 -0.1047895 9.8339996
-28.674927 13.450198 6.7015996 31.598
-9.985177 5.3605413 -0.14171743 11.124
-108.57491 47.254784 19.454462 -0.1
-11.495205 6.0179968 -0.17847967 12.748
-31.454454 14.646272 8.7918634 34.933998
-3.3549743 2.4867406 -0.043886662 4.25
-13.684845 7.0226827 -0.25601816 15.136
-3.5585785 2.57618 -0.053341389 4.448
-16.254208 8.1507072 -0.27722406 17.916
-3.757534 2.6634979 -0.05052495 4.638
-16.408709 8.2159195 0.12263834 18.034
-3.9762652 2.7595022 -0.048480749 4.8499999
-16.285229 8.1588764 0.55773342 17.856001
-4.2254014 2.8688767 -0.049999714 5.0960002
-16.226896 8.1305351 0.97711408 17.76
-4.491436 2.9856462 -0.047978878 5.3600001
-109.76022 48.18137 -5.5900116 -0.1
-4.7815785 3.1129818 -0.043436527 5.6500001
-109.84991 48.220737 -2.7852952 -0.1
-5.1459489 3.2730024 -0.054356337 6.0240002
-109.87951 48.233734 0 -0.1
-5.521543 3.4378645 -0.052173615 6.408
-29.685875 14.025067 3.0649247 32.431999
-5.9830713 3.6405299 -0.062175512 6.888
-28.541403 13.51815 3.7578321 31.209999
-6.5111899 3.8724096 -0.069623232 7.4400001
-109.61185 48.116238 8.3707771 -0.1
-7.0969868 4.1295567 -0.06923151 8.0539999
-25.645782 12.239611 4.8972321 28.139999
-7.5069385 4.309001 0.0096538067 8.4659996
-27.673061 13.123425 5.8335886 30.441999
-8.7665434 4.8626761 -0.10371304 9.8299999
-28.644619 13.544238 6.7036448 31.608
-9.9786577 5.3950219 -0.14312482 11.132
-108.42591 47.595646 19.454462 -0.1
-11.483046 6.055644 -0.17895889 12.752
-107.97968 47.399765 22.218252 -0.1
-3.3537536 2.4980741 -0.045839548 4.2540002
-13.650719 7.0560226 -0.25295258 15.118
-3.5411544 2.5810006 -0.045526981 4.4320002
-16.236601 8.2004833 -0.27744055 17.92
-3.7445428 2.6710052 -0.045815706 4.6279998
-16.365465 8.2548828 0.12558663 18.01
-3.9809043 2.7756515 -0.053719521 4.862
-16.278526 8.213604 0.55666637 17.872
-4.2132654 2.8784285 -0.046542645 5.0879998
-16.234896 8.1915703 0.97540498 17.792
-4.5006399 3.0056531 -0.055105448 5.3779998
-16.28097 8.2092781 1.3867207 17.82
-4.7821012 3.1301479 -0.046379089 5.658
-109.70635 48.546455 -2.7852952 -0.1
-5.1307025 3.2844388 -0.050681114 6.0139999
-109.73592 48.55954 0 -0.1
-5.5177794 3.4557452 -0.053410053 6.4120002
-29.555662 14.072665 3.0625215 32.332001
-5.9683232 3.6551592 -0.059548855 6.8800001
-28.399979 13.55676 3.7523265 31.096001
-6.5114317 3.8955789 -0.072412968 7.4499998
-109.46861 48.44125 8.3707771 -0.1
-7.0877223 4.1505766 -0.069094658 8.0539999
-25.581312 12.302009 4.8943472 28.106001
-7.5290179 4.3454022 0.00091052055 8.5019999
-27.869289 13.308158 5.8655257 30.698
-8.7622223 4.8918104 -0.1053369 9.8380003
-108.66798 48.08696 16.700771 -0.1
-9.9495134 5.4174304 -0.13930511 11.114
-108.28422 47.917145 19.454462 -0.1
-11.460855 6.0864739 -0.17730761 12.744
-107.83857 47.71994 22.218252 -0.1
-3.3417318 2.5038683 -0.040734529 4.244
-13.621182 7.0884509 -0.25052619 15.104
-3.5447545 2.594451 -0.050304174 4.4419999
-16.243633 8.2579012 -0.28112531 17.950001
-3.7447591 2.6836138 -0.048529863 4.6339998
-16.339743 8.2981024 0.12654138 18.004
-3.9694369 2.7837992 -0.050103664 4.8540001
-16.283827 8.2703896 0.55454433 17.9
-4.2014356 2.8871932 -0.043091536 5.0799999
-16.242117 8.2490673 0.97380412 17.822001
-4.4716678 3.007684 -0.04380393 5.3499999
-109.4809 48.81274 -5.5900116 -0.1
-4.7744946 3.142714 -0.045533657 5.6560001
-109.57036 48.852627 -2.7852952 -0.1
-5.1311684 3.3017931 -0.053448677 6.0219998
-109.59988 48.865791 0 -0.1
-5.5109491 3.471122 -0.053310156 6.4120002
-28.812363 13.840232 3.0400035 31.558001
-5.9661331 3.6741233 -0.061323881 6.8860002
-28.034563 13.488932 3.7336006 30.733999
-6.5033698 3.9137285 -0.072295189 7.4499998
-26.425615 12.767789 4.3140841 29.011999
-7.0894938 4.1750584 -0.072197676 8.066
-26.075016 12.607321 4.9522877 28.684
-7.7390409 4.4645886 -0.060178518 8.75
-108.85807 48.535046 13.938084 -0.1
-8.75315 4.917037 -0.10562634 9.8400002
-108.53326 48.390232 16.700771 -0.1
-9.9389791 5.4459734 -0.1395278 11.116
-108.14999 48.219341 19.454462 -0.1
-11.439472 6.115222 -0.17567039 12.736
-107.70489 48.020893 22.218252 -0.1
-3.3438594 2.5160251 -0.044709444 4.2519999
-13.611386 7.129684 -0.25152397 15.112
-3.538743 2.6035991 -0.049271822 4.4400001
-7.722137 4.4762454 0.96675086 8.5439997
-3.7449346 2.6962361 -0.051243544 4.6399999
0.1 0.1 0.1 -0.1
-3.967756 2.7963343 -0.051803589 4.8579998
-16.276217 8.3215389 0.55363095 17.914
-4.199502 2.9003916 -0.044702768 5.0840001
-16.243683 8.3042059 0.9725821 17.846001
-4.4711013 3.0224068 -0.046127081 5.3559999
-109.34416 49.118279 -5.5900116 -0.1
-4.7685409 3.1560166 -0.04544735 5.6560001
-109.43351 49.158413 -2.7852952 -0.1
-5.131578 3.3191679 -0.056216478 6.0300002
-109.463 49.171661 0 -0.1
-5.5109429 3.4895821 -0.055896521 6.4200001
-28.139898 13.634869 3.0197234 30.860001
-5.950038 3.6868436 -0.058077097 6.8759999
-27.968569 13.553281 3.7323012 30.700001
-6.4882832 3.9287071 -0.069844961 7.4419999
-26.885666 13.06278 4.3559351 29.554001
-7.0666041 4.1884832 -0.067760468 8.0500002
-25.993408 12.658128 4.9473896 28.629999
-7.7682528 4.5036945 -0.070900202 8.7939997
-108.72211 48.838848 13.938084 -0.1
-7.6867633 4.4655852 0.16080189 8.6520004
-108.39771 48.693123 16.700771 -0.1
-7.6690741 4.4562817 0.36992443 8.5880003
-108.01491 48.521168 19.454462 -0.1
-7.680788 4.4602442 0.57027996 8.5620003
-107.57037 48.321476 22.218252 -0.1
-3.3516996 2.5322423 -0.052711487 4.2680001
0.1 0.1 0.1 -0.1
-3.5385182 2.6168656 -0.052104235 4.4460001
0.1 0.1 0.1 -0.1
-3.7267468 2.7020783 -0.043749809 4.6240001
-7.7118416 4.4994698 1.1664009 8.5200005
-3.9654105 2.8102551 -0.053494692 4.862
-16.273136 8.38167 0.55206335 17.936001
-4.2001648 2.9165621 -0.047992468 5.092
-16.244318 8.365901 0.97127056 17.872
-4.4681153 3.0379395 -0.047638893 5.3600001
-109.18932 49.461552 -5.5900116 -0.1
-4.763483 3.1717298 -0.046108961 5.658
-109.27853 49.501965 -2.7852952 -0.1
-5.1260219 3.3360276 -0.056827307 6.0320001
-109.30798 49.515305 0 -0.1
-5.5065784 3.5084198 -0.057127953 6.4239998
-27.961637 13.660549 3.015763 30.708
-5.9433513 3.706285 -0.058583975 6.8779998
-27.959885 13.6551 3.7346787 30.733999
-6.4825883 3.9506361 -0.070879459 7.4460001
-27.646994 13.508901 4.4236712 30.434
-7.0531011 4.2090473 -0.066540003 8.0459995
-25.956583 12.739759 4.9479189 28.629999
-7.7625556 4.5304637 -0.072223186 8.8000002
-27.807581 13.572258 5.8734837 30.75
-7.6776624 4.4905005 0.16050994 8.6540003
-108.2442 49.033424 16.700771 -0.1
-7.6814075 4.4908743 0.36484313 8.6140003
-107.86194 48.860264 19.454462 -0.1
-7.7487502 4.5201502 0.55471539 8.6499996
-107.41803 48.65918 22.218252 -0.1
-3.33831 2.5366583 -0.046602488 4.256
0.1 0.1 0.1 -0.1
-3.5295489 2.623909 -0.049140215 4.4400001
-16.253254 8.4294386 -0.29083538 18.030001
-3.7352037 2.717732 -0.051104546 4.6399999
-16.4613 8.52178 0.10509408 18.208
-3.9607036 2.8206096 -0.053427696 4.862
-16.284597 8.4383059 0.54940498 17.969999
-4.1951785 2.9275308 -0.047921419 5.092
-16.252237 8.4208279 0.96965122 17.902
-4.4611444 3.0488448 -0.04676199 5.3579998
-109.05945 49.747238 -5.5900116 -0.1
-4.756145 3.1834006 -0.045269966 5.6560001
-109.14856 49.787884 -2.7852952 -0.1
-5.116539 3.3478608 -0.055310726 6.0279999
-109.17798 49.801304 0 -0.1
-5.4966135 3.5212357 -0.055691719 6.4200001
-27.770128 13.661562 3.0110447 30.534
-5.9293871 3.7186487 -0.055973053 6.8699999
-109.05945 49.747238 5.5900116 -0.1
-6.4835835 3.9715617 -0.073685169 7.4559999
-27.352789 13.462198 4.4021459 30.146
-7.0534778 4.2314916 -0.069113016 8.0559998
-26.101377 12.887708 4.967659 28.823999
-7.755095 4.5515594 -0.072585821 8.802
-108.43902 49.464226 13.938084 -0.1
0.1 0.1 0.1 -0.1
-108.11546 49.316639 16.700771 -0.1
-9.8758106 5.5193253 -0.13333845 11.088
-107.73366 49.142479 19.454462 -0.1
-11.397258 6.2136106 -0.17539501 12.738
-107.29028 48.940231 22.218252 -0.1
-3.324388 2.5421729 -0.040486336 4.244
-13.577283 7.2572494 -0.25417972 15.134
-3.5215917 2.6328788 -0.047136545 4.4359999
-7.7113938 4.5525875 0.9642688 8.566
-3.726927 2.7272935 -0.0491786 4.6360002
-16.411877 8.5580921 0.10869563 18.177999
-3.9585903 2.8338375 -0.055123568 4.8660002
-16.296885 8.5024033 0.54643822 18.007999
-4.1894932 2.9399462 -0.047841072 5.092
-16.253748 8.4798498 0.9683212 17.927999
0.1 0.1 0.1 -0.1
-108.91137 50.070606 -5.5900116 -0.1
-4.7580953 3.2013645 -0.048971891 5.6659999
-109.00036 50.111515 -2.7852952 -0.1
-5.0960398 3.3567357 -0.049492359 6.0120001
-109.02973 50.125019 0 -0.1
-5.4942913 3.5398815 -0.057601213 6.4260001
-27.667025 13.713858 3.0094271 30.462
-5.9282422 3.7393923 -0.058369875 6.8779998
-26.803421 13.312548 3.672035 29.538
-6.4678431 3.9875531 -0.071228981 7.448
-108.76414 50.002918 8.3707771 -0.1
-7.0421624 4.2515745 -0.06843996 8.0539999
-26.064116 12.964297 4.9679599 28.822001
-7.7480955 4.5761547 -0.073424816 8.8059998
-27.734961 13.726611 5.8742414 30.747999
-7.6758351 4.5414515 0.15630507 8.6739998
-107.96866 49.637207 16.700771 -0.1
-7.6761022 4.5402479 0.36189735 8.6300001
-107.58737 49.461914 19.454462 -0.1
0.1 0.1 0.1 -0.1
-107.14459 49.258354 22.218252 -0.1
-3.321146 2.5533161 -0.041428089 4.2459998
0.1 0.1 0.1 -0.1
-3.5180848 2.6446505 -0.048033237 4.4380002
0.1 0.1 0.1 -0.1
-3.7167206 2.7367182 -0.046322107 4.6300001
0.1 0.1 0.1 -0.1
-3.9528646 2.84624 -0.055043459 4.8660002
-16.304001 8.5678062 0.54383516 18.042
-4.1768603 2.9500053 -0.044382334 5.0840001
-16.260981 8.5451431 0.96650422 17.962
-4.4486527 3.07601 -0.04658699 5.3579998
-108.75353 50.412514 -5.5900116 -0.1
-4.7445025 3.2131476 -0.045841694 5.658
-108.84239 50.453705 -2.7852952 -0.1
-5.1072869 3.3813915 -0.057254314 6.0339999
-108.87172 50.4673 0 -0.1
-5.4897552 3.5586963 -0.058833361 6.4299998
-17.670639 9.1875525 2.6820426 19.483999
-5.9127765 3.75477 -0.05573988 6.8699999
-26.78994 13.408458 3.674068 29.566
-6.4584813 4.0078325 -0.071098328 7.448
-26.070848 13.071082 4.3014545 28.813999
-7.0284758 4.2720308 -0.067220449 8.0500002
-26.071478 13.067047 4.9734631 28.872
-7.7403927 4.602088 -0.074255228 8.8100004
-108.13483 50.125717 13.938084 -0.1
-7.6682563 4.5671692 0.15556395 8.6780005
-107.81219 49.976154 16.700771 -0.1
-7.6720929 4.5676289 0.36044145 8.6379995
-107.43145 49.799667 19.454462 -0.1
-7.7392616 4.5975394 0.55086446 8.6739998
-106.98932 49.594715 22.218252 -0.1
-3.3205085 2.5628786 -0.043393612 4.25
0.1 0.1 0.1 -0.1
-3.5156817 2.6539679 -0.048946619 4.4400001
0.1 0.1 0.1 -0.1
-3.7173195 2.7480378 -0.049045324 4.6360002
-16.33708 8.6344433 0.11322713 18.142
-3.9402707 2.8520598 -0.050553083 4.8559999
-16.917341 8.9027691 0.48372459 18.742001
-4.181973 2.964813 -0.049378395 5.0960002
-16.269646 8.5975094 0.96486688 17.992001
-4.4469271 3.0884128 -0.048119783 5.362
-108.63003 50.678097 -5.5900116 -0.1
-4.7391233 3.224715 -0.045767307 5.658
-108.71878 50.719505 -2.7852952 -0.1
-5.0913506 3.3890836 -0.05288434 6.0219998
-108.74809 50.733173 0 -0.1
-5.4750013 3.5680833 -0.055389881 6.4200001
-17.55998 9.1884651 2.6793313 19.384001
-5.9284229 3.7796702 -0.063805342 6.8959999
-26.763132 13.475578 3.6747017 29.57
-6.4546204 4.0252085 -0.072162867 7.4520001
-26.015928 13.122973 4.2997246 28.785999
-7.0239911 4.2908096 -0.068187237 8.0539999
-108.27788 50.513813 11.147032 -0.1
-7.7245908 4.6176825 -0.072159767 8.802
-108.01203 50.38979 13.938084 -0.1
-7.7001572 4.6048861 0.14537776 8.724
-107.68975 50.239441 16.700771 -0.1
-9.8440552 5.6068683 -0.13440681 11.096
-107.30945 50.062023 19.454462 -0.1
-11.364891 6.3166537 -0.17726851 12.752
-106.86781 49.855991 22.218252 -0.1
-3.3203177 2.5754993 -0.046352625 4.256
-13.474082 7.3526683 -0.24502254 15.08
-3.5121047 2.66573 -0.049844027 4.4419999
0.1 0.1 0.1 -0.1
-3.7118645 2.7596827 -0.048970461 4.6360002
-16.295084 8.6772318 0.11574638 18.122
-3.9280059 2.8613334 -0.04693079 4.848
-16.840197 8.9312363 0.48906612 18.684
-4.162724 2.9717066 -0.042545795 5.0799999
-16.269203 8.6596222 0.96355474 18.018
-4.43543 3.0999956 -0.04562664 5.3559999
-108.47028 51.019115 -5.5900116 -0.1
-4.7388563 3.2427342 -0.048705578 5.6659999
-108.55891 51.060802 -2.7852952 -0.1
-5.0754333 3.4010487 -0.049207449 6.0120001
-108.58817 51.074562 0 -0.1
-5.4720712 3.5876617 -0.057293892 6.4260001
-17.46179 9.2095737 2.6772928 19.304001
-5.9076982 3.7925751 -0.059293509 6.882
-26.893669 13.639462 3.6852565 29.757999
-6.4364915 4.0413599 -0.069118261 7.4419999
-108.32365 50.95015 8.3707771 -0.1
-7.0136738 4.3128343 -0.068045855 8.0539999
-27.11315 13.733643 5.0970516 30.104
-7.713243 4.6419072 -0.072004318 8.802
-107.8532 50.72887 13.938084 -0.1
-7.6835566 4.6265402 0.14687693 8.7180004
-107.53139 50.577511 16.700771 -0.1
-9.8313627 5.6385813 -0.13461137 11.098
-107.15164 50.398895 19.454462 -0.1
-11.335732 6.3464284 -0.17453957 12.738
-106.71066 50.191479 22.218252 -0.1
-3.3125641 2.5838306 -0.044272423 4.2519999
-13.465938 7.3976789 -0.24663258 15.092
-3.5103571 2.6776295 -0.05171299 4.4460001
0.1 0.1 0.1 -0.1
-3.7130754 2.7737207 -0.052608252 4.6440001
-16.288443 8.7331982 0.11408508 18.139999
-3.9257541 2.8745017 -0.048627853 4.8520002
-16.658222 8.9059677 0.50455761 18.507999
-4.1699996 2.9902744 -0.049215078 5.0960002
-16.269878 8.7189693 0.96222425 18.044001
-4.4358473 3.1162796 -0.048747063 5.3639998
-108.31843 51.340729 -5.5900116 -0.1
-4.7188702 3.2503886 -0.042548418 5.6500001
-108.40693 51.382679 -2.7852952 -0.1
-5.0851994 3.4241109 -0.056260347 6.0320001
-108.43614 51.396526 0 -0.1
-5.4627209 3.6030524 -0.056518793 6.4239998
-17.442759 9.2639198 2.6778042 19.309999
-5.8908668 3.8059843 -0.056043863 6.8720002
-27.466089 14.008152 3.7217906 30.434
-6.4378562 4.0653543 -0.072493792 7.454
-108.172 51.271328 8.3707771 -0.1
-7.0177798 4.3402286 -0.072219372 8.0699997
-26.909691 13.735741 5.0792456 29.92
-7.704206 4.6655855 -0.072351217 8.8039999
-107.7022 51.048653 13.938084 -0.1
-7.688652 4.6568346 0.14299071 8.7360001
-107.38085 50.896339 16.700771 -0.1
-9.824688 5.6710706 -0.13603544 11.106
-107.00164 50.716599 19.454462 -0.1
-11.30921 6.3749447 -0.17218232 12.726
-106.56127 50.507874 22.218252 -0.1
-3.310008 2.593226 -0.045225859 4.2540002
-13.463451 7.4397073 -0.24889493 15.108
-3.5012674 2.6845169 -0.048750877 4.4400001
0.1 0.1 0.1 -0.1
-3.7036736 2.7811105 -0.049765348 4.638
-16.313025 8.797226 0.10888422 18.190001
-3.9321923 2.8901906 -0.054761887 4.8660002
-16.268936 8.7734318 0.54017317 18.098
-4.1550136 2.9964519 -0.044084311 5.0840001
-16.273052 8.7727089 0.96085727 18.07
-4.4319897 3.1286578 -0.049474001 5.3660002
-16.365707 8.8142672 1.3765533 18.15
-4.7213497 3.2667191 -0.046261787 5.6599998
-108.27204 51.666313 -2.7852952 -0.1
-5.0670938 3.4317379 -0.051170826 6.0180001
-108.30122 51.680233 0 -0.1
-5.4627275 3.6205833 -0.059113026 6.4320002
-17.412033 9.3052559 2.6777966 19.299999
-5.8921084 3.8254817 -0.059082747 6.882
-27.449934 14.088622 3.7233162 30.454
-6.426405 4.0805235 -0.07122016 7.4499998
-108.0374 51.554344 8.3707771 -0.1
-7.0073209 4.3577366 -0.071563959 8.0679998
-26.804335 13.771929 5.0717287 29.84
-7.6963773 4.6865587 -0.072716236 8.8059998
-107.56819 51.330441 13.938084 -0.1
-7.6703043 4.6727228 0.14535904 8.7259998
-107.24724 51.177284 16.700771 -0.1
-9.8107061 5.6959076 -0.13546848 11.104
-106.86849 50.996555 19.454462 -0.1
-11.300475 6.4070592 -0.17306447 12.732
-106.42867 50.786678 22.218252 -0.1
-3.3112566 2.6066082 -0.049193621 4.2620001
-13.446774 7.4836602 -0.24924731 15.112
-3.5023122 2.6985383 -0.052551985 4.448
0.1 0.1 0.1 -0.1
-3.7044935 2.795805 -0.053399563 4.6459999
-16.573259 8.9856186 0.074407816 18.507999
-3.9166071 2.8978181 -0.049369574 4.8540001
-16.266018 8.8348598 0.53843093 18.122
-4.1504078 3.0102613 -0.044844866 5.086
-16.282753 8.8402319 0.95878828 18.108
-4.4220366 3.140949 -0.047783136 5.362
-108.02093 51.963745 -5.5900116 -0.1
-4.7059317 3.2774849 -0.042375565 5.6500001
-108.10919 52.006203 -2.7852952 -0.1
-5.0695729 3.4525003 -0.055358887 6.0300002
-108.13832 52.020218 0 -0.1
-5.4341712 3.6278651 -0.050947666 6.408
-17.403858 9.3685846 2.6787446 19.32
-5.878129 3.8414741 -0.057082653 6.8759999
-27.45364 14.196439 3.7265325 30.504
-6.4150286 4.0998392 -0.070508718 7.448
-107.8749 51.893497 8.3707771 -0.1
-6.9863868 4.3746815 -0.068194151 8.0559998
-26.884188 13.913836 5.0856133 29.974001
-7.6760869 4.70648 -0.070094824 8.7959995
-107.4064 51.668125 13.938084 -0.1
-7.653512 4.6942368 0.14685643 8.7200003
-107.08593 51.513962 16.700771 -0.1
-7.6680932 4.699955 0.35027146 8.6920004
-106.70776 51.332039 19.454462 -0.1
-7.7013454 4.7146864 0.54871476 8.6899996
-106.2686 51.120781 22.218252 -0.1
-3.3018723 2.6141269 -0.046105623 4.256
-7.7035947 4.7426395 0.75234413 8.6700001
-3.4957368 2.7081308 -0.051518202 4.4460001
0.1 0.1 0.1 -0.1
-3.6880541 2.8013208 -0.046840668 4.632
0.1 0.1 0.1 -0.1
-3.9093997 2.9086208 -0.048410416 4.8520002
-16.267836 8.8952494 0.53632569 18.15
-4.1526256 3.0265203 -0.048983812 5.0960002
-16.288181 8.9024353 0.95707953 18.139999
-4.4140701 3.1532333 -0.046898842 5.3600001
-107.86627 52.284019 -5.5900116 -0.1
-4.6992054 3.2914145 -0.042286634 5.6500001
-107.95441 52.32674 -2.7852952 -0.1
-5.0640054 3.4683261 -0.055978298 6.0320001
-107.9835 52.340839 0 -0.1
-5.4399514 3.6505551 -0.056215763 6.4239998
-17.420317 9.440238 2.6804519 19.365999
-5.862895 3.8555527 -0.054462433 6.868
-107.86627 52.284019 5.5900116 -0.1
-6.4006953 4.1163235 -0.068639517 7.4419999
-107.72046 52.213341 8.3707771 -0.1
-6.9781275 4.396215 -0.068600416 8.0579996
-26.774035 13.958895 5.0781517 29.893999
-7.6738229 4.7334547 -0.072417021 8.8059998
-107.25262 51.986576 13.938084 -0.1
-7.6495762 4.7203178 0.14520919 8.7279997
-106.93261 51.831463 16.700771 -0.1
0.1 0.1 0.1 -0.1
-106.55499 51.648422 19.454462 -0.1
0.1 0.1 0.1 -0.1
-106.11646 51.43586 22.218252 -0.1
-3.2961311 2.6219826 -0.045042753 4.2540002
-7.6991239 4.7653847 0.75153959 8.6759996
-3.4928691 2.7180288 -0.052428246 4.448
-7.7132101 4.7709813 0.95268357 8.6619997
-3.6817811 2.8101673 -0.045852661 4.6300001
0.1 0.1 0.1 -0.1
-3.9124823 2.9227829 -0.052772999 4.862
-16.273998 8.9509153 0.53401172 18.18
-4.1343303 3.0309677 -0.042167664 5.0799999
-16.288984 8.9555492 0.95583844 18.164
-4.4068184 3.1639535 -0.046024561 5.3579998
-107.72903 52.566235 -5.5900116 -0.1
-4.7065263 3.3102119 -0.048274994 5.6659999
-107.81705 52.609184 -2.7852952 -0.1
-5.0542183 3.4799089 -0.054464579 6.0279999
-107.8461 52.62336 0 -0.1
-5.4262733 3.6614487 -0.053440094 6.4159999
-17.41971 9.496336 2.6814613 19.389999
-5.8622656 3.8742149 -0.056874275 6.8759999
-107.72903 52.566235 5.5900116 -0.1
-6.3994331 4.1364164 -0.070863962 7.4499998
-107.5834 52.495174 8.3707771 -0.1
-6.9640694 4.4119081 -0.066869736 8.052
-26.609358 13.965338 5.0640497 29.747999
-7.6640687 4.7535105 -0.072289467 8.8059998
-107.11616 52.267185 13.938084 -0.1
-7.6538572 4.7471685 0.14175284 8.7440004
-106.79655 52.111233 16.700771 -0.1
-9.7800713 5.7864375 -0.13733983 11.116
-106.4194 51.927204 19.454462 -0.1
0.1 0.1 0.1 -0.1
-105.98143 51.713497 22.218252 -0.1
-3.3037353 2.6378694 -0.053048372 4.27
0.1 0.1 0.1 -0.1
-3.4846716 2.7268071 -0.05042696 4.4439998
-7.7393608 4.8122325 0.9472661 8.7040005
-3.6716814 2.8187003 -0.043002605 4.6240001
-16.286917 9.0198517 0.10199881 18.264
-3.9100263 2.9359512 -0.054470539 4.8660002
-16.277189 9.0123482 0.53173411 18.209999
-4.1364646 3.047224 -0.046306849 5.0900002
-16.301157 9.0214567 0.9536258 18.204
-4.4037156 3.1786213 -0.047543764 5.362
-16.368324 9.0518179 1.3735492 18.256001
-4.6947265 3.321682 -0.045912266 5.6599998
-107.66048 52.928852 -2.7852952 -0.1
-5.0519133 3.497354 -0.056513548 6.0339999
-107.68949 52.943115 0 -0.1
-5.4234724 3.6800172 -0.055351973 6.4219999
-17.448236 9.574439 2.6835892 19.450001
-5.8622775 3.8957777 -0.059900999 6.8860002
-107.57259 52.885639 5.5900116 -0.1
-6.3987288 4.1596022 -0.073657751 7.46
-107.42716 52.814148 8.3707771 -0.1
-6.9591494 4.4350901 -0.068353653 8.0579996
-26.438511 13.979363 5.0498009 29.6
-7.6494751 4.7744951 -0.071158886 8.802
-106.96061 52.584774 13.938084 -0.1
-7.6479974 4.7724271 0.140553 8.75
-106.64146 52.427876 16.700771 -0.1
-7.6626496 4.7783375 0.34464955 8.7220001
-106.26486 52.242729 19.454462 -0.1
-7.6852903 4.7881927 0.54591966 8.7080002
-105.82753 52.027721 22.218252 -0.1
-3.2834616 2.639924 -0.04290247 4.25
0.1 0.1 0.1 -0.1
-3.4764526 2.7355521 -0.048426628 4.4400001
0.1 0.1 0.1 -0.1
-3.680593 2.8366852 -0.05127573 4.6420002
0.1 0.1 0.1 -0.1
-3.9011075 2.9459198 -0.05262661 4.862
-16.28373 9.0756388 0.52911198 18.243999
-4.1239319 3.0562282 -0.042856216 5.0819998
-16.307714 9.0848465 0.95179105 18.238001
-4.3989239 3.192472 -0.048262596 5.3639998
-107.4152 53.204582 -5.5900116 -0.1
-4.6862125 3.3347523 -0.045065641 5.658
-107.50296 53.248055 -2.7852952 -0.1
-5.0428615 3.511476 -0.055704594 6.0320001
-107.53193 53.262402 0 -0.1
-5.4104886 3.6935549 -0.053236723 6.4159999
-17.47287 9.6510105 2.6855979 19.506001
-5.8486114 3.9105964 -0.05790925 6.8800001
-107.4152 53.204582 5.5900116 -0.1
-6.3842397 4.175993 -0.071789742 7.454
-29.694548 15.692307 4.6436205 33.228001
-6.9507041 4.4565573 -0.068761349 8.0600004
-26.763702 14.237764 5.0909634 30.007999
-7.6417656 4.7988763 -0.072002172 8.8059998
-106.80412 52.901901 13.938084 -0.1
-7.6472917 4.8002853 0.13800967 8.7620001
-106.48544 52.744057 16.700771 -0.1
0.1 0.1 0.1 -0.1
-106.10939 52.557793 19.454462 -0.1
0.1 0.1 0.1 -0.1
-105.67269 52.341488 22.218252 -0.1
-3.278918 2.649065 -0.042844534 4.25
-7.7049465 4.85182 0.7451272 8.7200003
-3.4778967 2.7483759 -0.05223608 4.448
0.1 0.1 0.1 -0.1
-3.6564953 2.8373854 -0.04008913 4.618
-7.7414718 4.8674965 1.1478841 8.7060003
-3.8941047 2.9559793 -0.051672697 4.8600001
-16.287893 9.1344166 0.52681625 18.274
-4.1279469 3.0725968 -0.047843218 5.0939999
-16.30653 9.1410398 0.95056784 18.261999
-4.3911953 3.2039037 -0.047384024 5.362
-107.2662 53.504333 -5.5900116 -0.1
-4.676415 3.3461478 -0.043466806 5.6539998
-107.35384 53.54805 -2.7852952 -0.1
-5.0358772 3.5255268 -0.055615902 6.0320001
-107.38277 53.562481 0 -0.1
-5.4013104 3.7077868 -0.052470446 6.414
-28.887831 15.403287 3.0700221 32.293999
-5.8405094 3.9268954 -0.057806253 6.8800001
-30.22534 16.065166 3.9061017 33.82
-6.3702631 4.1912155 -0.069929123 7.448
-29.678335 15.787645 4.6462879 33.256001
-6.9393516 4.4750686 -0.068100929 8.0579996
-106.91847 53.330887 11.147032 -0.1
-7.6277108 4.8184433 -0.070881128 8.802
-106.65597 53.199947 13.938084 -0.1
-7.6506395 4.8285837 0.13456154 8.7779999
-106.33774 53.041214 16.700771 -0.1
-9.7258253 5.8653922 -0.13398457 11.102
-105.9622 52.853901 19.454462 -0.1
0.1 0.1 0.1 -0.1
-105.52612 52.636379 22.218252 -0.1
-3.277144 2.6603243 -0.044800282 4.2540002
-13.310138 7.7033195 -0.24374294 15.086
-3.4743073 2.759455 -0.053138971 4.4499998
0.1 0.1 0.1 -0.1
-3.6653104 2.855407 -0.048362017 4.6360002
-16.298141 9.2027197 0.092834234 18.356001
-3.8867357 2.9666915 -0.050714254 4.8579998
-16.295763 9.1988096 0.52402186 18.309999
-4.1169767 3.0823569 -0.045236349 5.0879998
-16.310862 9.203723 0.94885886 18.294001
-4.3830533 3.2160723 -0.046500921 5.3600001
-107.10698 53.822361 -5.5900116 -0.1
-4.6744404 3.3624942 -0.045654297 5.6599998
-107.1945 53.866341 -2.7852952 -0.1
-5.0184102 3.5353799 -0.051233768 6.02
-107.22338 53.880856 0 -0.1
-5.400032 3.7271748 -0.055054188 6.4219999
-107.1945 53.866341 2.7852952 -0.1
-5.8454146 3.951035 -0.062714815 6.8959999
-30.157263 16.143147 3.9052777 33.793999
-6.3608189 4.2100787 -0.06981039 7.448
-106.96219 53.749603 8.3707771 -0.1
-6.9342222 4.4982219 -0.069585562 8.0640001
-106.75977 53.647884 11.147032 -0.1
-7.6198611 4.8427801 -0.07172513 8.8059998
-30.1777 16.138445 6.2826128 34.02
-7.6445155 4.8538775 0.13336122 8.7840004
-106.17989 53.356491 16.700771 -0.1
-9.7061529 5.8915582 -0.13259554 11.096
-105.80492 53.168064 19.454462 -0.1
-11.202153 6.6435871 -0.17446351 12.748
-105.36948 52.949249 22.218252 -0.1
-3.2784085 2.6731582 -0.048772573 4.2620001
-13.288485 7.7418618 -0.24318433 15.084
-3.4644463 2.7673461 -0.050171137 4.4439998
0.1 0.1 0.1 -0.1
-3.6472101 2.8598099 -0.040879726 4.6199999
-16.295059 9.2618065 0.090514421 18.379999
-3.8793375 2.9773774 -0.049756527 4.8559999
-16.294508 9.2588158 0.52208829 18.336
-4.1156797 3.0970097 -0.047689438 5.0939999
-16.318529 9.2683058 0.94689834 18.33
-4.3765106 3.2290442 -0.046419621 5.3600001
-106.94682 54.139919 -5.5900116 -0.1
-4.6707606 3.3780091 -0.047083378 5.664
-107.03419 54.184155 -2.7852952 -0.1
-5.0175767 3.5536244 -0.053998947 6.0279999
-107.06304 54.198757 0 -0.1
-5.3818932 3.7380354 -0.050927162 6.4099998
-43.608513 23.067049 3.5703321 48.896
-5.8332996 3.9666204 -0.061351776 6.8920002
-30.001669 16.176682 3.8992143 33.669998
-6.3598471 4.2332492 -0.072604895 7.4580002
-106.80224 54.06673 8.3707771 -0.1
-6.9255824 4.5196295 -0.069994688 8.066
-28.911343 15.615621 5.3467226 32.557999
-7.6050229 4.8635921 -0.070596933 8.802
-30.233526 16.278986 6.2971935 34.133999
-7.6417847 4.8809338 0.13126504 8.7939997
-106.02111 53.671295 16.700771 -0.1
-9.6759291 5.9123287 -0.12879324 11.078
-105.6467 53.481758 19.454462 -0.1
-11.181906 6.6749921 -0.17354131 12.744
-105.21191 53.261654 22.218252 -0.1
-3.2679174 2.6785579 -0.044685602 4.2540002
-13.27436 7.7784014 -0.24358749 15.088
-3.4567389 2.7747908 -0.04817915 4.4400001
0.1 0.1 0.1 -0.1
-3.6549888 2.8758054 -0.048233986 4.6360002
-16.30529 9.3206835 0.08684659 18.416
-3.8789802 2.9899621 -0.052349091 4.862
-16.297716 9.3141069 0.51994681 18.364
-4.103766 3.1044466 -0.044249296 5.086
-16.31819 9.3218689 0.94565713 18.354
-4.3755984 3.2429814 -0.048750401 5.3660002
-106.80471 54.41972 -5.5900116 -0.1
-4.6629176 3.3893642 -0.046248674 5.6620002
-106.89198 54.464184 -2.7852952 -0.1
-5.0075955 3.5650272 -0.052487373 6.0240002
-106.92078 54.478859 0 -0.1
-5.3814602 3.7555299 -0.053522825 6.4180002
-43.489998 23.150301 3.5690026 48.827999
-5.8171067 3.9775341 -0.058120251 6.882
-29.988493 16.268778 3.9013107 33.700001
-6.3394842 4.2437668 -0.068422556 7.4439998
-106.66033 54.346153 8.3707771 -0.1
-6.9112458 4.5350962 -0.06826663 8.0600004
-28.844536 15.676847 5.3440056 32.526001
-7.5845742 4.8781729 -0.067512512 8.79
-30.214563 16.368919 6.300642 34.158001
-7.6524682 4.9115534 0.12601769 8.8179998
-105.88023 53.948677 16.700771 -0.1
-9.6770391 5.9447532 -0.13185287 11.094
-105.50632 53.758156 19.454462 -0.1
-11.160048 6.7006445 -0.17193079 12.736
-105.07211 53.536915 22.218252 -0.1
-3.2672844 2.6911736 -0.047646046 4.2600002
-13.244276 7.8155222 -0.24177337 15.078
-3.4589744 2.7896385 -0.052949429 4.4499998
0.1 0.1 0.1 -0.1
-3.6491325 2.8872538 -0.048162222 4.6360002
-16.305641 9.3854799 0.083887815 18.445999
-3.8711717 3.0012901 -0.051387787 4.8600001
-16.308773 9.3843803 0.51665413 18.406
-4.0971894 3.1173038 -0.044168711 5.086
-16.325726 9.3904133 0.94358861 18.392
-4.3669572 3.2558513 -0.047863722 5.3639998
-106.63322 54.754986 -5.5900116 -0.1
-4.6587315 3.4056752 -0.047673225 5.6659999
-106.72034 54.799725 -2.7852952 -0.1
-5.0012274 3.5815787 -0.053103447 6.026
-106.74911 54.814491 0 -0.1
-5.3761816 3.7741258 -0.054759264 6.4219999
-43.242313 23.195543 3.5638375 48.627998
-5.8077793 3.9957695 -0.05800581 6.882
-29.863926 16.323727 3.8973022 33.613998
-6.3395214 4.2689023 -0.071793318 7.4559999
-106.48907 54.680965 8.3707771 -0.1
-6.9001613 4.5567656 -0.06813097 8.0600004
-106.28754 54.577484 11.147032 -0.1
-7.5724087 4.9019566 -0.067363739 8.79
-106.02659 54.443485 13.938084 -0.1
-7.6488571 4.9400148 0.1239295 8.8280001
-105.71023 54.28104 16.700771 -0.1
-9.6562891 5.9724131 -0.13045597 11.088
-105.33691 54.089348 19.454462 -0.1
-11.149142 6.7392521 -0.17313814 12.744
-104.9034 53.866741 22.218252 -0.1
-3.2687247 2.7034621 -0.051622391 4.2680001
-7.6941142 4.9865856 0.7377497 8.7720003
-3.4462502 2.7952256 -0.048051357 4.4400001
0.1 0.1 0.1 -0.1
-3.645469 2.8982334 -0.049025297 4.638
0.1 0.1 0.1 -0.1
-3.8672075 3.0128984 -0.052205563 4.862
-16.311874 9.4436121 0.51435828 18.436001
-4.0961366 3.1312263 -0.046626568 5.092
-16.341261 9.4561396 0.94110751 18.436001
-4.3590636 3.2671695 -0.046986818 5.362
-106.4799 55.052547 -5.5900116 -0.1
-4.6389079 3.4118233 -0.041527748 5.6500001
-106.5669 55.09753 -2.7852952 -0.1
-4.9990206 3.5980968 -0.055160284 6.0320001
-106.59562 55.112377 0 -0.1
-5.3701344 3.7899745 -0.055336714 6.4239998
-42.801857 23.120724 3.5517616 48.202
-5.7926984 4.0084524 -0.05539608 6.8740001
-106.4799 55.052547 5.5900116 -0.1
-6.3202291 4.281281 -0.068187714 7.4439998
-106.33596 54.978127 8.3707771 -0.1
-6.895381 4.57866 -0.069624662 8.066
-106.13472 54.874084 11.147032 -0.1
-7.5546503 4.9194946 -0.065259695 8.7819996
-105.87414 54.739357 13.938084 -0.1
-7.6465216 4.965826 0.12182474 8.8380003
-105.55824 54.576027 16.700771 -0.1
0.1 0.1 0.1 -0.1
-105.18546 54.383293 19.454462 -0.1
0.1 0.1 0.1 -0.1
-104.75256 54.159477 22.218252 -0.1
-3.2563565 2.708549 -0.046524525 4.2579999
0.1 0.1 0.1 -0.1
-3.4226708 2.7950649 -0.036380768 4.4159999
-7.690135 5.0104909 0.94229352 8.75
-3.6339238 2.9050927 -0.045255423 4.6300001
-16.330923 9.5140533 0.07549572 18.528
-3.853678 3.019506 -0.047712088 4.8520002
-16.320074 9.5056896 0.51154637 18.472
-4.0805783 3.1375854 -0.041496754 5.0799999
-16.32646 9.5063372 0.94076335 18.445999
-4.3495164 3.2776115 -0.045309305 5.3579998
-106.32574 55.349682 -5.5900116 -0.1
-4.6354833 3.4264629 -0.042963028 5.6539998
-106.41262 55.394905 -2.7852952 -0.1
-4.9917946 3.6120245 -0.0550735 6.0320001
-106.4413 55.409832 0 -0.1
-5.3623714 3.8049378 -0.055243492 6.4239998
-42.638802 23.187574 3.5490713 48.088001
-5.7742262 4.0193148 -0.051532984 6.862
-29.469517 16.329939 3.8797245 33.265999
-6.3246555 4.3059859 -0.072737694 7.46
-29.529514 16.356314 4.6591506 33.382
-6.8837028 4.5969868 -0.068966866 8.0640001
-28.471472 15.801419 5.3180361 32.25
-7.5505972 4.9441428 -0.067100048 8.79
-105.72086 55.034798 13.938084 -0.1
-7.6458297 4.9925566 0.11927199 8.8500004
-105.40542 54.87059 16.700771 -0.1
-9.6249962 6.0244064 -0.12931538 11.084
-105.03319 54.676815 19.454462 -0.1
0.1 0.1 0.1 -0.1
-104.60091 54.45179 22.218252 -0.1
-3.2495005 2.7179391 -0.045452595 4.256
0.1 0.1 0.1 -0.1
-3.4371879 2.816416 -0.048892021 4.4419999
0.1 0.1 0.1 -0.1
-3.6358116 2.9206142 -0.049817801 4.6399999
-16.330547 9.5791597 0.072536945 18.558001
-3.8521268 3.03409 -0.050292492 4.8579998
-16.325069 9.5735741 0.50877011 18.507999
-4.0787091 3.1529095 -0.043946743 5.086
-16.338568 9.5779848 0.93831789 18.49
-4.3456368 3.2929504 -0.046826124 5.362
-106.15134 55.683441 -5.5900116 -0.1
-4.6213441 3.4375353 -0.03984046 5.6459999
-106.23807 55.728935 -2.7852952 -0.1
-4.9753571 3.6233125 -0.051403284 6.0219998
-106.2667 55.743954 0 -0.1
-5.3435879 3.8164744 -0.051113129 6.4120002
-42.551151 23.312145 3.5493016 48.068001
-5.7832494 4.0471535 -0.0583179 6.8839998
-29.299116 16.358482 3.8729153 33.127998
-6.3142939 4.3258138 -0.072614193 7.46
-106.00784 55.608166 8.3707771 -0.1
-6.8741288 4.6194677 -0.06937027 8.066
-105.80722 55.50293 11.147032 -0.1
-7.5382247 4.9678187 -0.066952705 8.79
-105.54745 55.366657 13.938084 -0.1
-7.6488252 5.024703 0.11539292 8.868
-105.23252 55.201458 16.700771 -0.1
-7.6585951 5.0285349 0.32337487 8.8339996
-104.86089 55.006516 19.454462 -0.1
-7.6953049 5.0465417 0.52434838 8.8360004
-104.42934 54.780136 22.218252 -0.1
-3.2508385 2.730231 -0.049429417 4.2639999
0.1 0.1 0.1 -0.1
-3.446059 2.833385 -0.05753994 4.46
0.1 0.1 0.1 -0.1
-3.6289179 2.9299054 -0.048828363 4.638
0.1 0.1 0.1 -0.1
-3.8623161 3.053236 -0.059078217 4.8779998
-16.331045 9.6349449 0.50613046 18.542
-4.0775352 3.1668222 -0.046405077 5.092
-16.337519 9.6356897 0.93696809 18.516001
-4.3376474 3.3041949 -0.045950174 5.3600001
-16.389891 9.6606951 1.3647704 18.552
-4.6292801 3.4582212 -0.046582222 5.664
-18.809998 10.936429 1.7541938 21.275999
-4.9614611 3.633671 -0.048459291 6.0139999
-106.11062 56.040489 0 -0.1
-5.3407435 3.8340127 -0.053033352 6.4180002
-42.324238 23.344093 3.5444283 47.882
-5.7714109 4.0614896 -0.056963921 6.8800001
-105.99542 55.979652 5.5900116 -0.1
-6.2965798 4.3389292 -0.069592714 7.4499998
-105.85214 55.903976 8.3707771 -0.1
-6.8640437 4.6386271 -0.069251299 8.066
-105.65182 55.798183 11.147032 -0.1
-7.5254521 4.9879236 -0.066329479 8.7880001
-105.39242 55.661186 13.938084 -0.1
-7.6496592 5.0524139 0.11239254 8.882
-105.07796 55.495106 16.700771 -0.1
0.1 0.1 0.1 -0.1
-104.70688 55.299129 19.454462 -0.1
-7.6979251 5.0753651 0.52162886 8.8520002
-104.27596 55.071541 22.218252 -0.1
-3.2384303 2.7352014 -0.044332504 4.2540002
0.1 0.1 0.1 -0.1
-3.4286306 2.8363671 -0.049740553 4.4439998
0.1 0.1 0.1 -0.1
-3.6157508 2.9358273 -0.04413271 4.6279998
0.1 0.1 0.1 -0.1
-3.8423855 3.0563753 -0.051044941 4.8600001
-16.33153 9.6936064 0.50400615 18.57
-4.0699177 3.1773229 -0.045491695 5.0900002
-16.345083 9.6981449 0.93498969 18.552
-4.3360934 3.3188698 -0.048277378 5.3660002
-105.83869 56.275429 -5.5900116 -0.1
-4.6126528 3.4658816 -0.041954994 5.652
-105.92516 56.321411 -2.7852952 -0.1
-4.9590788 3.6501348 -0.050516844 6.02
-105.95371 56.336586 0 -0.1
-5.3361816 3.8506696 -0.054282665 6.4219999
-42.198093 23.428432 3.5429873 47.810001
-5.7695899 4.081151 -0.059372187 6.888
-105.83869 56.275429 5.5900116 -0.1
-6.2872806 4.3564777 -0.069483995 7.4499998
-105.69561 56.199356 8.3707771 -0.1
-6.8539062 4.6577587 -0.069132805 8.066
-105.49559 56.092999 11.147032 -0.1
-7.5109153 5.0070758 -0.06521368 8.7840004
-105.23657 55.95528 13.938084 -0.1
-7.6503983 5.0801601 0.10939205 8.8959999
-104.92258 55.788322 16.700771 -0.1
-9.5861292 6.1109009 -0.13000154 11.09
-104.55205 55.591309 19.454462 -0.1
-11.008821 6.8675556 -0.16038203 12.678
-104.12176 55.362522 22.218252 -0.1
-3.2436576 2.7510862 -0.051326752 4.2680001
-13.107983 8.0370655 -0.23754978 15.06
-3.4228995 2.847105 -0.049674273 4.4439998
0.1 0.1 0.1 -0.1
-3.6003463 2.9421036 -0.038502932 4.6160002
-16.337542 9.7654495 0.063153028 18.652
-3.8375399 3.0692627 -0.051855326 4.862
-16.351593 9.7702799 0.49968314 18.624001
-4.0615158 3.189213 -0.044569969 5.0879998
-16.347614 9.7654696 0.93317246 18.586
-4.3272285 3.3315866 -0.047392845 5.3639998
-105.66137 56.607651 -5.5900116 -0.1
-4.6098261 3.4829686 -0.044139147 5.658
-105.7477 56.653904 -2.7852952 -0.1
-4.9655867 3.6736467 -0.056850433 6.0380001
-105.7762 56.669174 0 -0.1
-5.3272548 3.8673944 -0.05417943 6.4219999
-39.843472 22.33777 3.4655313 45.217999
-5.744885 4.0911369 -0.053617477 6.8699999
-30.016022 17.069853 3.9263473 34.096001
-6.2717052 4.3734689 -0.067615271 7.4439998
-105.51854 56.531128 8.3707771 -0.1
-6.8373466 4.6765108 -0.067386389 8.0600004
-105.31885 56.424145 11.147032 -0.1
-7.5051746 5.0342984 -0.06703949 8.7919998
-105.06026 56.285614 13.938084 -0.1
-7.6513305 5.1115327 0.10596049 8.9119997
-104.7468 56.117672 16.700771 -0.1
-9.573535 6.1428189 -0.13062 11.094
-104.37688 55.919495 19.454462 -0.1
-10.992126 6.9030161 -0.16052485 12.68
-103.94732 55.689354 22.218252 -0.1
-3.2406261 2.760376 -0.052282333 4.27
-13.101732 8.0779076 -0.23951101 15.074
-3.4165595 2.8552041 -0.048651934 4.4419999
0.1 0.1 0.1 -0.1
-3.6093152 2.9591119 -0.046784163 4.6339998
-16.353067 9.828948 0.058612347 18.695999
-3.8226972 3.0741501 -0.046482801 4.8499999
-16.36894 9.8348093 0.49599504 18.67
-4.0574102 3.2006829 -0.045347452 5.0900002
-16.359768 9.8271809 0.93092573 18.625999
-4.3163214 3.340266 -0.044920921 5.3579998
-105.51281 56.884079 -5.5900116 -0.1
-4.5935922 3.4897163 -0.039517403 5.6459999
-18.578266 11.018133 1.7578768 21.110001
-4.948761 3.6812773 -0.052484274 6.026
-105.62748 56.9459 0 -0.1
-5.3181186 3.8804135 -0.053422451 6.4200001
-29.492582 16.89397 3.1126819 33.518002
-5.7301383 4.1025286 -0.051017046 6.862
-30.038864 17.183439 3.9307971 34.169998
-6.2780428 4.3980522 -0.072755098 7.4619999
-105.37018 56.807182 8.3707771 -0.1
-6.8277445 4.6943769 -0.067276001 8.0600004
-30.070704 17.190758 5.5277004 34.324001
-7.5065675 5.0603676 -0.070369005 8.8059998
-104.91255 56.560467 13.938084 -0.1
-7.6560149 5.1398745 0.10205662 8.9300003
-104.59952 56.391705 16.700771 -0.1
-9.5566397 6.1659794 -0.12966156 11.09
-104.23013 56.192558 19.454462 -0.1
-10.964563 6.9252014 -0.15785217 12.666
-103.80117 55.961296 22.218252 -0.1
-3.2251372 2.7635956 -0.045170307 4.256
-13.075027 8.1106663 -0.2380445 15.066
-3.4114141 2.8647156 -0.048593283 4.4419999
0.1 0.1 0.1 -0.1
-3.6101007 2.9725609 -0.050428152 4.6420002
-16.338877 9.8802547 0.057583094 18.708
-3.823235 3.0882337 -0.049957514 4.8579998
-16.352999 9.8852234 0.49541736 18.68
-4.0512977 3.211983 -0.045277834 5.0900002
-16.354376 9.8832989 0.92982638 18.648001
-4.3162537 3.3558004 -0.04804945 5.3660002
-105.35355 57.178505 -5.5900116 -0.1
-4.5947943 3.5069449 -0.043228149 5.6560001
-18.511564 11.048981 1.7589085 21.066
-4.9462237 3.6977477 -0.054542542 6.0320001
-105.46805 57.240646 0 -0.1
-5.2935615 3.8862116 -0.04662323 6.4000001
-39.980419 22.690325 3.4755645 45.506001
-5.7315068 4.12395 -0.054680347 6.8740001
-105.35355 57.178505 5.5900116 -0.1
-6.2584982 4.4100556 -0.069153309 7.4499998
-105.21113 57.101208 8.3707771 -0.1
-6.8174505 4.7134066 -0.067158937 8.0600004
-30.053289 17.289871 5.5314136 34.355999
-7.4918447 5.0794368 -0.069254398 8.802
-104.7542 56.853218 13.938084 -0.1
-7.6530304 5.1658773 0.099951029 8.9399996
-104.44164 56.683582 16.700771 -0.1
-9.5198565 6.1804495 -0.1242702 11.064
-29.626783 17.043953 7.8785138 34.183998
-10.934196 6.9482498 -0.1548121 12.65
-103.64449 56.250946 22.218252 -0.1
-3.2317398 2.7803624 -0.053172588 4.2719998
-13.052684 8.15168 -0.23779273 15.066
-3.4132609 2.879621 -0.053364515 4.4520001
0.1 0.1 0.1 -0.1
-3.5992825 2.9813042 -0.047579288 4.6360002
-16.34757 9.9515676 0.053313494 18.75
-3.8214247 3.1028039 -0.052539349 4.8639998
-16.36874 9.9604549 0.49143863 18.73
-4.0491509 3.2272975 -0.047728539 5.0960002
-16.368443 9.9576168 0.92713058 18.695999
-4.31531 3.3728566 -0.05116868 5.3740001
-105.1734 57.509201 -5.5900116 -0.1
-4.5934391 3.5249093 -0.046170712 5.664
-105.25933 57.55619 -2.7852952 -0.1
-4.9377789 3.7132487 -0.054447174 6.0320001
-105.2877 57.571697 0 -0.1
-5.3010373 3.9118741 -0.053229094 6.4200001
-30.159 17.48484 3.1400099 34.386002
-5.7150607 4.1382589 -0.052062511 6.8660002
-105.1734 57.509201 5.5900116 -0.1
-6.2511644 4.4315166 -0.070197344 7.454
-29.284636 16.997341 4.6694641 33.467999
-6.8142505 4.7394142 -0.069716215 8.0699997
-29.921539 17.340366 5.5228033 34.264
-7.4790473 5.1029282 -0.069110155 8.802
-30.341677 17.564785 6.389308 34.834
-7.6485023 5.1945624 0.09786129 8.9499998
-104.26305 57.011414 16.700771 -0.1
-9.5293608 6.2244325 -0.13011742 11.094
-103.89484 56.810081 19.454462 -0.1
-10.917239 6.98349 -0.15495753 12.652
-103.46726 56.576279 22.218252 -0.1
-3.2361784 2.7938213 -0.059169292 4.2839999
-7.694418 5.2420378 0.7200408 8.8940001
-3.4022496 2.8851366 -0.049440145 4.4439998
-7.7018371 5.2448502 0.92725444 8.8719997
-3.5894773 2.9881229 -0.044742107 4.6300001
0.1 0.1 0.1 -0.1
-3.8237975 3.1171241 -0.056903362 4.8740001
-16.415075 10.041715 0.48483169 18.809999
-4.0449386 3.2387481 -0.048506737 5.098
-16.371189 10.014869 0.92551136 18.726
-4.3059216 3.3823509 -0.04949832 5.3699999
-105.02248 57.784344 -5.5900116 -0.1
-4.5852389 3.5360098 -0.045339584 5.6620002
-105.10829 57.831558 -2.7852952 -0.1
-4.9274359 3.7243381 -0.052939653 6.0279999
-105.13661 57.847145 0 -0.1
-5.2917924 3.9248099 -0.052473545 6.4180002
-39.19265 22.556089 3.4541001 44.75
-5.7185073 4.1596184 -0.056358814 6.8800001
-105.02248 57.784344 5.5900116 -0.1
-6.2422056 4.4478493 -0.070097208 7.454
-104.88051 57.70623 8.3707771 -0.1
-6.7909927 4.7497711 -0.065305471 8.0539999
-104.68202 57.597023 11.147032 -0.1
-7.468327 5.1224728 -0.068989992 8.802
-104.42501 57.455612 13.938084 -0.1
-7.6494846 5.2211447 0.094852209 8.9639997
-104.11343 57.28418 16.700771 -0.1
0.1 0.1 0.1 -0.1
-28.756056 16.787539 7.727396 33.284
0.1 0.1 0.1 -0.1
-103.31879 56.846958 22.218252 -0.1
-3.218827 2.7966566 -0.051046371 4.2680001
0.1 0.1 0.1 -0.1
-3.3905787 2.891788 -0.045509338 4.4359999
0.1 0.1 0.1 -0.1
-3.5898063 3.0021949 -0.048382998 4.638
-16.366949 10.081267 0.045141697 18.83
-3.8050191 3.1214499 -0.049753904 4.8579998
-16.393444 10.09326 0.48461425 18.816
-4.0367465 3.2498333 -0.047590733 5.0960002
-16.377565 10.081781 0.92342556 18.764
-4.3052907 3.3986609 -0.052622795 5.3779998
-104.85057 58.095699 -5.5900116 -0.1
-4.5728951 3.5468783 -0.042983055 5.6560001
-104.93624 58.143166 -2.7852952 -0.1
-4.9210148 3.7398312 -0.053564548 6.0300002
-104.96452 58.158836 0 -0.1
-5.2765584 3.9368093 -0.049694777 6.4099998
-38.322311 22.225767 3.4268978 43.827999
-5.7058406 4.1747017 -0.055001497 6.8759999
-30.421614 17.844791 3.9679961 34.824001
-6.2386894 4.4700518 -0.07231307 7.4619999
-29.069109 17.09116 4.6594048 33.324001
-6.7933583 4.777369 -0.069483757 8.0699997
-104.51067 57.907368 11.147032 -0.1
-7.4493384 5.1408224 -0.066883326 8.7939997
-104.25407 57.765194 13.938084 -0.1
-7.6523108 5.2523222 0.090964794 8.9820004
-103.94301 57.592838 16.700771 -0.1
0.1 0.1 0.1 -0.1
-103.57594 57.38945 19.454462 -0.1
-10.902679 7.0548325 -0.1585052 12.674
-103.14967 57.153263 22.218252 -0.1
-3.2162333 2.8084288 -0.053001165 4.2719998
0.1 0.1 0.1 -0.1
-3.3831477 2.9015481 -0.044477224 4.434
0.1 0.1 0.1 -0.1
-3.5789177 3.0108335 -0.045535088 4.632
-16.366158 10.148135 0.041963339 18.862
-3.8030822 3.1360035 -0.052336216 4.8639998
-16.432678 10.182606 0.47823322 18.893999
-4.0312948 3.2633677 -0.048356295 5.098
-16.371637 10.145827 0.92210948 18.790001
-4.2961907 3.4112527 -0.051739931 5.3759999
-104.66754 58.424809 -5.5900116 -0.1
-4.5600839 3.5584903 -0.040622473 5.6500001
-104.75306 58.472546 -2.7852952 -0.1
-4.9205852 3.7598219 -0.057041407 6.04
-104.78129 58.488304 0 -0.1
-5.270648 3.9551897 -0.050935268 6.414
-38.103535 22.261322 3.4223614 43.653999
-5.7074914 4.1990867 -0.059279919 6.8899999
-104.66754 58.424809 5.5900116 -0.1
-6.2194667 4.4849319 -0.069282532 7.4520001
-104.52605 58.345829 8.3707771 -0.1
-6.7747912 4.7949014 -0.067203283 8.0620003
-104.32823 58.235413 11.147032 -0.1
-7.4397311 5.1660743 -0.067726612 8.7980003
-104.07209 58.09243 13.938084 -0.1
-7.661078 5.2886968 0.085296154 9.0080004
-28.754539 17.021118 6.9640799 33.273998
-7.6593437 5.2864242 0.2992692 8.96
-103.39513 57.714561 19.454462 -0.1
-7.6788468 5.2960463 0.50668406 8.9420004
-102.9696 57.477036 22.218252 -0.1
-3.2025127 2.8117185 -0.04690218 4.2600002
0.1 0.1 0.1 -0.1
-3.3842986 2.913825 -0.048292637 4.4419999
0.1 0.1 0.1 -0.1
-3.5767729 3.0219204 -0.047331095 4.6360002
0.1 0.1 0.1 -0.1
-3.7944002 3.1441672 -0.050506115 4.8600001
-16.368668 10.203117 0.48244262 18.848
-4.0206642 3.2712169 -0.045763493 5.092
-16.384205 10.209183 0.91973794 18.832001
-4.2931008 3.4242735 -0.053272486 5.3800001
-104.51422 58.698627 -5.5900116 -0.1
-4.5518041 3.5694892 -0.039792299 5.6479998
-104.59962 58.74659 -2.7852952 -0.1
-4.9068813 3.7690012 -0.054106236 6.0320001
-104.62781 58.762421 0 -0.1
-5.2563744 3.9652545 -0.048168659 6.4060001
-29.281418 17.439377 3.1181531 33.596001
-5.6991429 4.2139969 -0.059189081 6.8899999
-104.51422 58.698627 5.5900116 -0.1
-6.2087016 4.5002422 -0.068601131 7.4499998
-104.37294 58.619278 8.3707771 -0.1
-6.7732706 4.8173332 -0.069783211 8.0719995
-29.334751 17.454964 5.4788923 33.804001
-7.4356003 5.1893215 -0.069579124 8.8059998
-103.91965 58.364693 13.938084 -0.1
-7.6549625 5.3115888 0.084076405 9.0139999
-28.677879 17.077036 6.9586902 33.234001
0.1 0.1 0.1 -0.1
-103.24368 57.98505 19.454462 -0.1
-7.6864729 5.3267379 0.50288641 8.9639997
-102.81878 57.74641 22.218252 -0.1
-3.1983609 2.8226013 -0.047849417 4.2620001
-7.7038255 5.3670969 0.70973897 8.9639997
-3.3828876 2.9270225 -0.051129818 4.448
0.1 0.1 0.1 -0.1
-3.5750792 3.035754 -0.050041676 4.6420002
0.1 0.1 0.1 -0.1
-3.789259 3.1569397 -0.051318407 4.862
-16.37266 10.273133 0.47949409 18.886
-4.0151401 3.2847092 -0.04652977 5.0939999
-16.395174 10.283216 0.91716826 18.878
-4.2855186 3.4377244 -0.053190708 5.3800001
-104.3293 59.02668 -5.5900116 -0.1
-4.5534182 3.5892415 -0.044251919 5.6599998
-104.41454 59.074909 -2.7852952 -0.1
-4.8933406 3.7816086 -0.051870108 6.026
-104.44268 59.090828 0 -0.1
-5.2536407 3.9854519 -0.050751209 6.414
-28.726725 17.246883 3.1011853 33.018002
-5.6841183 4.2290459 -0.057200193 6.8839998
-29.29332 17.562544 3.9092963 33.700001
-6.1944022 4.5178151 -0.067319155 7.4460001
-104.18826 58.946884 8.3707771 -0.1
-6.7478986 4.8309593 -0.065353632 8.0559998
-103.9911 58.835331 11.147032 -0.1
-7.4275155 5.2155056 -0.070915461 8.8120003
-103.73577 58.690876 13.938084 -0.1
-7.7855453 5.4173598 0.046205521 9.184
-28.618494 17.162237 6.9577751 33.223999
-9.4495382 6.3598719 -0.12847495 11.09
-103.061 58.309113 19.454462 -0.1
-10.850231 7.1525345 -0.15827227 12.676
-102.63686 58.069141 22.218252 -0.1
-3.1981201 2.8335257 -0.05082202 4.2680001
-12.906475 8.3610039 -0.23240614 15.04
-3.3793957 2.9367223 -0.052043438 4.4499998
0.1 0.1 0.1 -0.1
-3.5667069 3.0433235 -0.048132658 4.638
-16.401358 10.348848 0.028615952 18.992001
-3.7743065 3.161484 -0.045948982 4.8499999
-16.382988 10.335678 0.47632217 18.926001
-4.0044684 3.2924891 -0.043937922 5.0879998
-16.39859 10.341902 0.91542375 18.91
-4.2616696 3.4389005 -0.044317961 5.3579998
-104.17442 59.29961 -5.5900116 -0.1
-4.5434561 3.5992944 -0.042664289 5.6560001
-17.44418 10.931872 1.7771065 20.076
-4.9006829 3.802736 -0.058220387 6.0440001
-104.28763 59.364056 0 -0.1
-5.2491241 4.0010452 -0.052008867 6.4180002
-28.242752 17.070915 3.0862303 32.509998
-5.669096 4.2401257 -0.054603338 6.8759999
-104.17442 59.29961 5.5900116 -0.1
-6.1885409 4.5358973 -0.068384886 7.4499998
-27.942102 16.890736 4.5781155 32.240002
